0.675039,-2.338467,-2.376725, 78,225,118,1
0.664778,-2.338593,-2.377179, 78,225,118,1
0.654516,-2.338718,-2.377633, 78,225,118,1
0.644255,-2.338844,-2.378087, 78,225,118,1
0.633993,-2.338969,-2.378541, 78,225,118,1
0.623732,-2.339095,-2.378994, 78,225,118,1
0.613470,-2.339220,-2.379448, 78,225,118,1
0.603208,-2.339345,-2.379902, 78,225,118,1
0.592947,-2.339471,-2.380356, 78,225,118,1
0.582685,-2.339596,-2.380810, 78,225,118,1
0.572424,-2.339722,-2.381264, 78,225,118,1
0.562162,-2.339847,-2.381718, 78,225,118,1
0.551900,-2.339973,-2.382172, 78,225,118,1
0.541639,-2.340098,-2.382626, 78,225,118,1
0.531377,-2.340223,-2.383080, 78,225,118,1
0.521116,-2.340349,-2.383533, 78,225,118,1
0.510854,-2.340474,-2.383987, 78,225,118,1
0.500592,-2.340600,-2.384441, 78,225,118,1
0.490331,-2.340725,-2.384895, 78,225,118,1
0.480069,-2.340851,-2.385349, 78,225,118,1
0.469808,-2.340976,-2.385803, 78,225,118,1
0.459546,-2.341102,-2.386257, 78,225,118,1
0.449284,-2.341227,-2.386711, 78,225,118,1
0.439023,-2.341352,-2.387165, 78,225,118,1
0.428761,-2.341478,-2.387619, 78,225,118,1
0.418500,-2.341603,-2.388073, 78,225,118,1
0.408238,-2.341729,-2.388526, 78,225,118,1
0.397977,-2.341854,-2.388980, 78,225,118,1
0.387715,-2.341980,-2.389434, 78,225,118,1
0.377453,-2.342105,-2.389888, 78,225,118,1
0.367192,-2.342230,-2.390342, 78,225,118,1
0.356930,-2.342356,-2.390796, 78,225,118,1
0.346669,-2.342481,-2.391250, 78,225,118,1
0.336407,-2.342607,-2.391704, 78,225,118,1
0.326145,-2.342732,-2.392158, 78,225,118,1
0.315884,-2.342858,-2.392612, 78,225,118,1
0.305622,-2.342983,-2.393065, 78,225,118,1
0.295361,-2.343109,-2.393519, 78,225,118,1
0.285099,-2.343234,-2.393973, 78,225,118,1
0.274837,-2.343359,-2.394427, 78,225,118,1
0.264576,-2.343485,-2.394881, 78,225,118,1
0.254314,-2.343610,-2.395335, 78,225,118,1
0.244053,-2.343736,-2.395789, 78,225,118,1
0.233791,-2.343861,-2.396243, 78,225,118,1
0.223530,-2.343987,-2.396697, 78,225,118,1
0.213268,-2.344112,-2.397151, 78,225,118,1
0.203006,-2.344238,-2.397605, 78,225,118,1
0.192745,-2.344363,-2.398058, 78,225,118,1
0.182483,-2.344488,-2.398512, 78,225,118,1
0.172222,-2.344614,-2.398966, 78,225,118,1
0.161960,-2.344739,-2.399420, 78,225,118,1
0.151698,-2.344865,-2.399874, 78,225,118,1
0.141437,-2.344990,-2.400328, 78,225,118,1
0.420830,-2.440167,-1.385664, 78,225,118,1
0.410512,-2.440380,-1.385238, 78,225,118,1
0.400193,-2.440593,-1.384811, 78,225,118,1
0.389875,-2.440806,-1.384385, 78,225,118,1
0.379556,-2.441019,-1.383958, 78,225,118,1
0.369238,-2.441232,-1.383532, 78,225,118,1
0.358920,-2.441445,-1.383105, 78,225,118,1
0.348601,-2.441658,-1.382679, 78,225,118,1
0.338283,-2.441871,-1.382252, 78,225,118,1
0.327964,-2.442084,-1.381826, 78,225,118,1
0.317646,-2.442297,-1.381399, 78,225,118,1
0.307328,-2.442510,-1.380973, 78,225,118,1
0.297009,-2.442723,-1.380546, 78,225,118,1
0.286691,-2.442936,-1.380120, 78,225,118,1
0.276372,-2.443149,-1.379693, 78,225,118,1
0.266054,-2.443362,-1.379267, 78,225,118,1
0.255736,-2.443575,-1.378840, 78,225,118,1
0.245417,-2.443788,-1.378414, 78,225,118,1
0.235099,-2.444001,-1.377987, 78,225,118,1
0.224780,-2.444214,-1.377561, 78,225,118,1
0.214462,-2.444427,-1.377134, 78,225,118,1
0.204144,-2.444640,-1.376708, 78,225,118,1
0.193825,-2.444853,-1.376281, 78,225,118,1
0.183507,-2.445066,-1.375855, 78,225,118,1
0.173188,-2.445279,-1.375428, 78,225,118,1
0.162870,-2.445492,-1.375002, 78,225,118,1
0.152552,-2.445705,-1.374575, 78,225,118,1
0.142233,-2.445918,-1.374149, 78,225,118,1
0.131915,-2.446131,-1.373722, 78,225,118,1
0.121596,-2.446344,-1.373296, 78,225,118,1
0.111278,-2.446557,-1.372869, 78,225,118,1
0.100960,-2.446770,-1.372443, 78,225,118,1
0.090641,-2.446983,-1.372016, 78,225,118,1
0.080323,-2.447196,-1.371590, 78,225,118,1
0.070004,-2.447409,-1.371163, 78,225,118,1
0.059686,-2.447622,-1.370737, 78,225,118,1
0.049367,-2.447835,-1.370310, 78,225,118,1
0.039049,-2.448048,-1.369884, 78,225,118,1
0.028731,-2.448261,-1.369457, 78,225,118,1
0.018412,-2.448474,-1.369031, 78,225,118,1
0.008094,-2.448687,-1.368604, 78,225,118,1
-0.002225,-2.448900,-1.368178, 78,225,118,1
-0.012543,-2.449113,-1.367751, 78,225,118,1
-0.022861,-2.449326,-1.367325, 78,225,118,1
-0.033180,-2.449538,-1.366898, 78,225,118,1
-0.043498,-2.449751,-1.366472, 78,225,118,1
-0.053817,-2.449964,-1.366045, 78,225,118,1
-0.064135,-2.450177,-1.365619, 78,225,118,1
-0.074453,-2.450390,-1.365192, 78,225,118,1
-0.084772,-2.450603,-1.364766, 78,225,118,1
-0.095090,-2.450816,-1.364339, 78,225,118,1
-0.105409,-2.451029,-1.363913, 78,225,118,1
-0.115727,-2.451242,-1.363486, 78,225,118,1
-0.126045,-2.451455,-1.363060, 78,225,118,1
-0.136364,-2.451668,-1.362633, 78,225,118,1
-0.146682,-2.451881,-1.362207, 78,225,118,1
-0.157001,-2.452094,-1.361780, 78,225,118,1
-0.167319,-2.452307,-1.361354, 78,225,118,1
-0.177637,-2.452520,-1.360927, 78,225,118,1
-0.187956,-2.452733,-1.360501, 78,225,118,1
-0.198274,-2.452946,-1.360074, 78,225,118,1
-0.208593,-2.453159,-1.359648, 78,225,118,1
-0.218911,-2.453372,-1.359221, 78,225,118,1
-0.229229,-2.453585,-1.358795, 78,225,118,1
-0.239548,-2.453798,-1.358368, 78,225,118,1
-0.249866,-2.454011,-1.357942, 78,225,118,1
-0.260185,-2.454224,-1.357515, 78,225,118,1
-0.270503,-2.454437,-1.357089, 78,225,118,1
-0.280821,-2.454650,-1.356662, 78,225,118,1
-0.291140,-2.454863,-1.356236, 78,225,118,1
-0.301458,-2.455076,-1.355809, 78,225,118,1
-0.311777,-2.455289,-1.355383, 78,225,118,1
-0.322095,-2.455502,-1.354956, 78,225,118,1
-0.332414,-2.455715,-1.354530, 78,225,118,1
-0.342732,-2.455928,-1.354103, 78,225,118,1
-0.353050,-2.456141,-1.353677, 78,225,118,1
-0.363369,-2.456354,-1.353250, 78,225,118,1
-0.373687,-2.456567,-1.352823, 78,225,118,1
-0.384006,-2.456780,-1.352397, 78,225,118,1
-0.394324,-2.456993,-1.351970, 78,225,118,1
-0.404642,-2.457206,-1.351544, 78,225,118,1
-0.414961,-2.457419,-1.351117, 78,225,118,1
-0.425279,-2.457632,-1.350691, 78,225,118,1
-0.435598,-2.457845,-1.350264, 78,225,118,1
-0.445916,-2.458058,-1.349838, 78,225,118,1
-0.456234,-2.458271,-1.349411, 78,225,118,1
-0.466553,-2.458484,-1.348985, 78,225,118,1
-0.476871,-2.458697,-1.348558, 78,225,118,1
-0.487190,-2.458910,-1.348132, 78,225,118,1
-0.497508,-2.459123,-1.347705, 78,225,118,1
-0.507826,-2.459336,-1.347279, 78,225,118,1
-0.518145,-2.459549,-1.346852, 78,225,118,1
-0.528463,-2.459762,-1.346426, 78,225,118,1
-0.538782,-2.459975,-1.345999, 78,225,118,1
-0.549100,-2.460188,-1.345573, 78,225,118,1
-0.559418,-2.460401,-1.345146, 78,225,118,1
-0.569737,-2.460614,-1.344720, 78,225,118,1
-0.580055,-2.460827,-1.344293, 78,225,118,1
-0.590374,-2.461040,-1.343867, 78,225,118,1
-0.600692,-2.461253,-1.343440, 78,225,118,1
-0.611010,-2.461466,-1.343014, 78,225,118,1
-0.621329,-2.461679,-1.342587, 78,225,118,1
-0.631647,-2.461892,-1.342161, 78,225,118,1
-0.641966,-2.462105,-1.341734, 78,225,118,1
-0.652284,-2.462318,-1.341308, 78,225,118,1
-0.662602,-2.462530,-1.340881, 78,225,118,1
-0.672921,-2.462743,-1.340455, 78,225,118,1
-0.683239,-2.462956,-1.340028, 78,225,118,1
-0.693558,-2.463169,-1.339602, 78,225,118,1
-0.703876,-2.463382,-1.339175, 78,225,118,1
-0.714195,-2.463595,-1.338749, 78,225,118,1
-0.724513,-2.463808,-1.338322, 78,225,118,1
-0.734831,-2.464021,-1.337896, 78,225,118,1
-0.745150,-2.464234,-1.337469, 78,225,118,1
-0.755468,-2.464447,-1.337043, 78,225,118,1
-0.765787,-2.464660,-1.336616, 78,225,118,1
-0.776105,-2.464873,-1.336190, 78,225,118,1
-0.786423,-2.465086,-1.335763, 78,225,118,1
-0.796742,-2.465299,-1.335337, 78,225,118,1
-0.807060,-2.465512,-1.334910, 78,225,118,1
-0.817379,-2.465725,-1.334484, 78,225,118,1
-0.827697,-2.465938,-1.334057, 78,225,118,1
-0.838015,-2.466151,-1.333631, 78,225,118,1
-0.848334,-2.466364,-1.333204, 78,225,118,1
-0.858652,-2.466577,-1.332778, 78,225,118,1
-0.868971,-2.466790,-1.332351, 78,225,118,1
-0.879289,-2.467003,-1.331925, 78,225,118,1
-0.889607,-2.467216,-1.331498, 78,225,118,1
-0.899926,-2.467429,-1.331072, 78,225,118,1
-0.910244,-2.467642,-1.330645, 78,225,118,1
-0.920563,-2.467855,-1.330219, 78,225,118,1
-0.930881,-2.468068,-1.329792, 78,225,118,1
-0.941199,-2.468281,-1.329366, 78,225,118,1
-0.951518,-2.468494,-1.328939, 78,225,118,1
-0.961836,-2.468707,-1.328513, 78,225,118,1
-0.972155,-2.468920,-1.328086, 78,225,118,1
-0.982473,-2.469133,-1.327660, 78,225,118,1
-0.992791,-2.469346,-1.327233, 78,225,118,1
-1.003110,-2.469559,-1.326807, 78,225,118,1
-1.013428,-2.469772,-1.326380, 78,225,118,1
-1.023747,-2.469985,-1.325954, 78,225,118,1
-1.034065,-2.470198,-1.325527, 78,225,118,1
-1.044383,-2.470411,-1.325101, 78,225,118,1
-1.054702,-2.470624,-1.324674, 78,225,118,1
-1.065020,-2.470837,-1.324248, 78,225,118,1
-1.075339,-2.471050,-1.323821, 78,225,118,1
-1.071790,-2.350723,-2.546482, 78,225,118,1
-1.082026,-2.350779,-2.547640, 78,225,118,1
-1.092262,-2.350835,-2.548798, 78,225,118,1
-1.102497,-2.350890,-2.549957, 78,225,118,1
-1.112733,-2.350946,-2.551115, 78,225,118,1
-1.122969,-2.351002,-2.552273, 78,225,118,1
-1.133205,-2.351058,-2.553431, 78,225,118,1
-1.143440,-2.351113,-2.554590, 78,225,118,1
-1.153676,-2.351169,-2.555748, 78,225,118,1
-1.163912,-2.351225,-2.556906, 78,225,118,1
-1.174148,-2.351280,-2.558065, 78,225,118,1
-1.184383,-2.351336,-2.559223, 78,225,118,1
-1.194619,-2.351392,-2.560381, 78,225,118,1
-1.204855,-2.351448,-2.561540, 78,225,118,1
-1.215090,-2.351503,-2.562698, 78,225,118,1
-1.225326,-2.351559,-2.563856, 78,225,118,1
-1.235562,-2.351615,-2.565014, 78,225,118,1
-1.245798,-2.351671,-2.566173, 78,225,118,1
-1.256033,-2.351726,-2.567331, 78,225,118,1
-1.266269,-2.351782,-2.568489, 78,225,118,1
-1.276505,-2.351838,-2.569648, 78,225,118,1
-1.286741,-2.351893,-2.570806, 78,225,118,1
-1.296976,-2.351949,-2.571964, 78,225,118,1
-1.307212,-2.352005,-2.573123, 78,225,118,1
-1.317448,-2.352061,-2.574281, 78,225,118,1
-1.327683,-2.352116,-2.575439, 78,225,118,1
-1.337919,-2.352172,-2.576597, 78,225,118,1
-1.348155,-2.352228,-2.577756, 78,225,118,1
-1.358391,-2.352283,-2.578914, 78,225,118,1
-1.368626,-2.352339,-2.580072, 78,225,118,1
-1.378862,-2.352395,-2.581231, 78,225,118,1
-1.389098,-2.352451,-2.582389, 78,225,118,1
-1.399333,-2.352506,-2.583547, 78,225,118,1
-1.409569,-2.352562,-2.584706, 78,225,118,1
-1.419805,-2.352618,-2.585864, 78,225,118,1
-1.430041,-2.352674,-2.587022, 78,225,118,1
-1.440276,-2.352729,-2.588180, 78,225,118,1
-1.450512,-2.352785,-2.589339, 78,225,118,1
-1.460748,-2.352841,-2.590497, 78,225,118,1
-1.470984,-2.352896,-2.591655, 78,225,118,1
-1.481219,-2.352952,-2.592814, 78,225,118,1
-1.491455,-2.353008,-2.593972, 78,225,118,1
-1.501691,-2.353064,-2.595130, 78,225,118,1
-1.511926,-2.353119,-2.596288, 78,225,118,1
-1.522162,-2.353175,-2.597447, 78,225,118,1
-1.532398,-2.353231,-2.598605, 78,225,118,1
-1.542634,-2.353286,-2.599763, 78,225,118,1
-1.552869,-2.353342,-2.600922, 78,225,118,1
-1.563105,-2.353398,-2.602080, 78,225,118,1
-1.573341,-2.353454,-2.603238, 78,225,118,1
-1.583577,-2.353509,-2.604397, 78,225,118,1
-1.593812,-2.353565,-2.605555, 78,225,118,1
-1.604048,-2.353621,-2.606713, 78,225,118,1
-1.614284,-2.353677,-2.607871, 78,225,118,1
-1.624519,-2.353732,-2.609030, 78,225,118,1
-1.634755,-2.353788,-2.610188, 78,225,118,1
-1.644991,-2.353844,-2.611346, 78,225,118,1
-1.655227,-2.353899,-2.612505, 78,225,118,1
-1.665462,-2.353955,-2.613663, 78,225,118,1
-1.675698,-2.354011,-2.614821, 78,225,118,1
-1.685934,-2.354067,-2.615980, 78,225,118,1
-1.696169,-2.354122,-2.617138, 78,225,118,1
-1.706405,-2.354178,-2.618296, 78,225,118,1
-1.716641,-2.354234,-2.619454, 78,225,118,1
-1.726877,-2.354290,-2.620613, 78,225,118,1
-1.737112,-2.354345,-2.621771, 78,225,118,1
-1.747348,-2.354401,-2.622929, 78,225,118,1
-1.757584,-2.354457,-2.624088, 78,225,118,1
-1.767820,-2.354512,-2.625246, 78,225,118,1
-1.778055,-2.354568,-2.626404, 78,225,118,1
-1.788291,-2.354624,-2.627563, 78,225,118,1
-1.798527,-2.354680,-2.628721, 78,225,118,1
-1.808762,-2.354735,-2.629879, 78,225,118,1
-1.818998,-2.354791,-2.631037, 78,225,118,1
-1.829234,-2.354847,-2.632196, 78,225,118,1
-1.839470,-2.354902,-2.633354, 78,225,118,1
-1.849705,-2.354958,-2.634512, 78,225,118,1
-1.859941,-2.355014,-2.635671, 78,225,118,1
-1.870177,-2.355070,-2.636829, 78,225,118,1
-1.880413,-2.355125,-2.637987, 78,225,118,1
-1.890648,-2.355181,-2.639146, 78,225,118,1
-1.900884,-2.355237,-2.640304, 78,225,118,1
-1.911120,-2.355293,-2.641462, 78,225,118,1
-1.921355,-2.355348,-2.642620, 78,225,118,1
-1.931591,-2.355404,-2.643779, 78,225,118,1
-1.941827,-2.355460,-2.644937, 78,225,118,1
-1.952063,-2.355515,-2.646095, 78,225,118,1
-1.962298,-2.355571,-2.647254, 78,225,118,1
-1.972534,-2.355627,-2.648412, 78,225,118,1
-1.982770,-2.355683,-2.649570, 78,225,118,1
-1.993005,-2.355738,-2.650729, 78,225,118,1
-2.003241,-2.355794,-2.651887, 78,225,118,1
-2.013477,-2.355850,-2.653045, 78,225,118,1
-2.023713,-2.355905,-2.654203, 78,225,118,1
-2.033948,-2.355961,-2.655362, 78,225,118,1
-2.044184,-2.356017,-2.656520, 78,225,118,1
-2.054420,-2.356073,-2.657678, 78,225,118,1
-2.064656,-2.356128,-2.658837, 78,225,118,1
-2.074891,-2.356184,-2.659995, 78,225,118,1
-2.085127,-2.356240,-2.661153, 78,225,118,1
-2.095363,-2.356296,-2.662312, 78,225,118,1
-2.105598,-2.356351,-2.663470, 78,225,118,1
-2.115834,-2.356407,-2.664628, 78,225,118,1
-2.126070,-2.356463,-2.665786, 78,225,118,1
-2.136306,-2.356518,-2.666945, 78,225,118,1
-2.146541,-2.356574,-2.668103, 78,225,118,1
-2.156777,-2.356630,-2.669261, 78,225,118,1
-2.167013,-2.356686,-2.670420, 78,225,118,1
-2.177249,-2.356741,-2.671578, 78,225,118,1
-2.187484,-2.356797,-2.672736, 78,225,118,1
-2.197720,-2.356853,-2.673894, 78,225,118,1
-2.207956,-2.356908,-2.675053, 78,225,118,1
-2.218191,-2.356964,-2.676211, 78,225,118,1
-2.228427,-2.357020,-2.677369, 78,225,118,1
-2.238663,-2.357076,-2.678528, 78,225,118,1
-2.248899,-2.357131,-2.679686, 78,225,118,1
-2.259134,-2.357187,-2.680844, 78,225,118,1
-2.269370,-2.357243,-2.682003, 78,225,118,1
-2.279606,-2.357299,-2.683161, 78,225,118,1
-2.289841,-2.357354,-2.684319, 78,225,118,1
-2.300077,-2.357410,-2.685477, 78,225,118,1
-2.310313,-2.357466,-2.686636, 78,225,118,1
-2.320549,-2.357521,-2.687794, 78,225,118,1
-2.330784,-2.357577,-2.688952, 78,225,118,1
-2.341020,-2.357633,-2.690111, 78,225,118,1
-2.351256,-2.357689,-2.691269, 78,225,118,1
-2.361492,-2.357744,-2.692427, 78,225,118,1
-2.371727,-2.357800,-2.693586, 78,225,118,1
-2.381963,-2.357856,-2.694744, 78,225,118,1
-2.392199,-2.357912,-2.695902, 78,225,118,1
-2.402434,-2.357967,-2.697060, 78,225,118,1
-2.412670,-2.358023,-2.698219, 78,225,118,1
-2.422906,-2.358079,-2.699377, 78,225,118,1
-2.433142,-2.358134,-2.700535, 78,225,118,1
-2.443377,-2.358190,-2.701694, 78,225,118,1
-2.453613,-2.358246,-2.702852, 78,225,118,1
-2.463849,-2.358302,-2.704010, 78,225,118,1
-2.474085,-2.358357,-2.705169, 78,225,118,1
-2.484320,-2.358413,-2.706327, 78,225,118,1
-2.494556,-2.358469,-2.707485, 78,225,118,1
-2.504792,-2.358524,-2.708643, 78,225,118,1
-2.515027,-2.358580,-2.709802, 78,225,118,1
-2.525263,-2.358636,-2.710960, 78,225,118,1
-2.535499,-2.358692,-2.712118, 78,225,118,1
-2.545735,-2.358747,-2.713277, 78,225,118,1
-2.555970,-2.358803,-2.714435, 78,225,118,1
-2.566206,-2.358859,-2.715593, 78,225,118,1
-2.576442,-2.358915,-2.716752, 78,225,118,1
-2.586677,-2.358970,-2.717910, 78,225,118,1
-2.596913,-2.359026,-2.719068, 78,225,118,1
-2.607149,-2.359082,-2.720226, 78,225,118,1
-2.617385,-2.359137,-2.721385, 78,225,118,1
-2.627620,-2.359193,-2.722543, 78,225,118,1
-2.637856,-2.359249,-2.723701, 78,225,118,1
-2.648092,-2.359305,-2.724860, 78,225,118,1
-2.658328,-2.359360,-2.726018, 78,225,118,1
-2.668563,-2.359416,-2.727176, 78,225,118,1
-2.678799,-2.359472,-2.728335, 78,225,118,1
-2.689035,-2.359527,-2.729493, 78,225,118,1
-2.699270,-2.359583,-2.730651, 78,225,118,1
-2.709506,-2.359639,-2.731809, 78,225,118,1
-2.719742,-2.359695,-2.732968, 78,225,118,1
-2.729978,-2.359750,-2.734126, 78,225,118,1
-2.740213,-2.359806,-2.735284, 78,225,118,1
-2.750449,-2.359862,-2.736443, 78,225,118,1
-2.760685,-2.359918,-2.737601, 78,225,118,1
-2.770921,-2.359973,-2.738759, 78,225,118,1
-2.781156,-2.360029,-2.739917, 78,225,118,1
-2.791392,-2.360085,-2.741076, 78,225,118,1
-2.801628,-2.360140,-2.742234, 78,225,118,1
-2.811863,-2.360196,-2.743392, 78,225,118,1
-2.822099,-2.360252,-2.744551, 78,225,118,1
-2.832335,-2.360308,-2.745709, 78,225,118,1
-2.842571,-2.360363,-2.746867, 78,225,118,1
-2.852806,-2.360419,-2.748026, 78,225,118,1
-2.863042,-2.360475,-2.749184, 78,225,118,1
-2.873278,-2.360530,-2.750342, 78,225,118,1
-2.883513,-2.360586,-2.751500, 78,225,118,1
-2.893749,-2.360642,-2.752659, 78,225,118,1
-2.903985,-2.360698,-2.753817, 78,225,118,1
-2.914221,-2.360753,-2.754975, 78,225,118,1
-2.924456,-2.360809,-2.756134, 78,225,118,1
-2.934692,-2.360865,-2.757292, 78,225,118,1
-2.944928,-2.360921,-2.758450, 78,225,118,1
-2.955164,-2.360976,-2.759609, 78,225,118,1
-2.965399,-2.361032,-2.760767, 78,225,118,1
-2.975635,-2.361088,-2.761925, 78,225,118,1
-2.985871,-2.361143,-2.763083, 78,225,118,1
-2.996106,-2.361199,-2.764242, 78,225,118,1
-3.006342,-2.361255,-2.765400, 78,225,118,1
-3.016578,-2.361311,-2.766558, 78,225,118,1
4.006185,-0.824336,0.779826, 57,226,135,2
4.004228,-0.832244,0.773525, 57,226,135,2
4.002270,-0.840152,0.767223, 57,226,135,2
4.000312,-0.848060,0.760922, 57,226,135,2
3.998354,-0.855968,0.754621, 57,226,135,2
3.996397,-0.863876,0.748319, 57,226,135,2
3.994439,-0.871784,0.742018, 57,226,135,2
3.992481,-0.879692,0.735716, 57,226,135,2
3.990524,-0.887600,0.729415, 57,226,135,2
3.988566,-0.895508,0.723114, 57,226,135,2
3.986608,-0.903416,0.716812, 57,226,135,2
3.984650,-0.911324,0.710511, 57,226,135,2
3.982693,-0.919233,0.704209, 57,226,135,2
3.980735,-0.927141,0.697908, 57,226,135,2
3.978777,-0.935049,0.691607, 57,226,135,2
3.976819,-0.942957,0.685305, 57,226,135,2
3.974862,-0.950865,0.679004, 57,226,135,2
3.972904,-0.958773,0.672702, 57,226,135,2
3.970946,-0.966681,0.666401, 57,226,135,2
3.968989,-0.974589,0.660100, 57,226,135,2
3.967031,-0.982497,0.653798, 57,226,135,2
3.965073,-0.990405,0.647497, 57,226,135,2
3.963115,-0.998313,0.641195, 57,226,135,2
3.961158,-1.006221,0.634894, 57,226,135,2
3.959200,-1.014129,0.628593, 57,226,135,2
3.957242,-1.022037,0.622291, 57,226,135,2
3.955285,-1.029946,0.615990, 57,226,135,2
3.953327,-1.037854,0.609688, 57,226,135,2
3.951369,-1.045762,0.603387, 57,226,135,2
3.949411,-1.053670,0.597086, 57,226,135,2
3.947454,-1.061578,0.590784, 57,226,135,2
3.945496,-1.069486,0.584483, 57,226,135,2
3.943538,-1.077394,0.578181, 57,226,135,2
3.941581,-1.085302,0.571880, 57,226,135,2
3.939623,-1.093210,0.565578, 57,226,135,2
3.937665,-1.101118,0.559277, 57,226,135,2
3.935707,-1.109026,0.552976, 57,226,135,2
3.933750,-1.116934,0.546674, 57,226,135,2
3.931792,-1.124842,0.540373, 57,226,135,2
3.929834,-1.132751,0.534071, 57,226,135,2
3.927876,-1.140659,0.527770, 57,226,135,2
3.925919,-1.148567,0.521469, 57,226,135,2
3.923961,-1.156475,0.515167, 57,226,135,2
3.922003,-1.164383,0.508866, 57,226,135,2
3.920046,-1.172291,0.502564, 57,226,135,2
3.918088,-1.180199,0.496263, 57,226,135,2
3.916130,-1.188107,0.489962, 57,226,135,2
3.914172,-1.196015,0.483660, 57,226,135,2
3.912215,-1.203923,0.477359, 57,226,135,2
3.910257,-1.211831,0.471057, 57,226,135,2
3.908299,-1.219739,0.464756, 57,226,135,2
3.906342,-1.227647,0.458455, 57,226,135,2
3.904384,-1.235556,0.452153, 57,226,135,2
3.902426,-1.243464,0.445852, 57,226,135,2
3.900468,-1.251372,0.439550, 57,226,135,2
3.898511,-1.259280,0.433249, 57,226,135,2
3.896553,-1.267188,0.426948, 57,226,135,2
3.894595,-1.275096,0.420646, 57,226,135,2
3.892638,-1.283004,0.414345, 57,226,135,2
3.890680,-1.290912,0.408043, 57,226,135,2
3.888722,-1.298820,0.401742, 57,226,135,2
3.886764,-1.306728,0.395441, 57,226,135,2
3.884807,-1.314636,0.389139, 57,226,135,2
3.882849,-1.322544,0.382838, 57,226,135,2
3.880891,-1.330452,0.376536, 57,226,135,2
3.878933,-1.338360,0.370235, 57,226,135,2
3.876976,-1.346269,0.363934, 57,226,135,2
3.875018,-1.354177,0.357632, 57,226,135,2
3.873060,-1.362085,0.351331, 57,226,135,2
3.871103,-1.369993,0.345029, 57,226,135,2
3.869145,-1.377901,0.338728, 57,226,135,2
3.867187,-1.385809,0.332427, 57,226,135,2
3.865229,-1.393717,0.326125, 57,226,135,2
3.863272,-1.401625,0.319824, 57,226,135,2
3.861314,-1.409533,0.313522, 57,226,135,2
3.859356,-1.417441,0.307221, 57,226,135,2
3.857399,-1.425349,0.300920, 57,226,135,2
3.855441,-1.433257,0.294618, 57,226,135,2
3.853483,-1.441165,0.288317, 57,226,135,2
3.851525,-1.449074,0.282015, 57,226,135,2
3.849568,-1.456982,0.275714, 57,226,135,2
3.847610,-1.464890,0.269412, 57,226,135,2
3.845652,-1.472798,0.263111, 57,226,135,2
3.843695,-1.480706,0.256810, 57,226,135,2
3.841737,-1.488614,0.250508, 57,226,135,2
3.839779,-1.496522,0.244207, 57,226,135,2
3.837821,-1.504430,0.237905, 57,226,135,2
3.835864,-1.512338,0.231604, 57,226,135,2
3.833906,-1.520246,0.225303, 57,226,135,2
3.831948,-1.528154,0.219001, 57,226,135,2
3.829990,-1.536062,0.212700, 57,226,135,2
3.828033,-1.543970,0.206398, 57,226,135,2
3.826075,-1.551879,0.200097, 57,226,135,2
3.824117,-1.559787,0.193796, 57,226,135,2
3.822160,-1.567695,0.187494, 57,226,135,2
3.820202,-1.575603,0.181193, 57,226,135,2
3.818244,-1.583511,0.174891, 57,226,135,2
3.816286,-1.591419,0.168590, 57,226,135,2
3.814329,-1.599327,0.162289, 57,226,135,2
3.812371,-1.607235,0.155987, 57,226,135,2
3.810413,-1.615143,0.149686, 57,226,135,2
3.808456,-1.623051,0.143384, 57,226,135,2
3.806498,-1.630959,0.137083, 57,226,135,2
3.804540,-1.638867,0.130782, 57,226,135,2
3.802582,-1.646775,0.124480, 57,226,135,2
3.800625,-1.654683,0.118179, 57,226,135,2
3.798667,-1.662592,0.111877, 57,226,135,2
3.796709,-1.670500,0.105576, 57,226,135,2
3.794752,-1.678408,0.099275, 57,226,135,2
3.792794,-1.686316,0.092973, 57,226,135,2
3.790836,-1.694224,0.086672, 57,226,135,2
3.788878,-1.702132,0.080370, 57,226,135,2
3.786921,-1.710040,0.074069, 57,226,135,2
3.784963,-1.717948,0.067768, 57,226,135,2
3.783005,-1.725856,0.061466, 57,226,135,2
3.781047,-1.733764,0.055165, 57,226,135,2
3.779090,-1.741672,0.048863, 57,226,135,2
3.777132,-1.749580,0.042562, 57,226,135,2
3.775174,-1.757488,0.036261, 57,226,135,2
3.773217,-1.765397,0.029959, 57,226,135,2
3.771259,-1.773305,0.023658, 57,226,135,2
3.769301,-1.781213,0.017356, 57,226,135,2
3.767343,-1.789121,0.011055, 57,226,135,2
3.765386,-1.797029,0.004754, 57,226,135,2
3.763428,-1.804937,-0.001548, 57,226,135,2
3.761470,-1.812845,-0.007849, 57,226,135,2
3.759513,-1.820753,-0.014151, 57,226,135,2
3.757555,-1.828661,-0.020452, 57,226,135,2
3.755597,-1.836569,-0.026753, 57,226,135,2
3.753639,-1.844477,-0.033055, 57,226,135,2
3.751682,-1.852385,-0.039356, 57,226,135,2
3.749724,-1.860293,-0.045658, 57,226,135,2
3.747766,-1.868202,-0.051959, 57,226,135,2
3.745809,-1.876110,-0.058261, 57,226,135,2
3.743851,-1.884018,-0.064562, 57,226,135,2
3.741893,-1.891926,-0.070863, 57,226,135,2
3.739935,-1.899834,-0.077165, 57,226,135,2
3.737978,-1.907742,-0.083466, 57,226,135,2
3.736020,-1.915650,-0.089768, 57,226,135,2
3.734062,-1.923558,-0.096069, 57,226,135,2
3.732104,-1.931466,-0.102370, 57,226,135,2
3.730147,-1.939374,-0.108672, 57,226,135,2
3.728189,-1.947282,-0.114973, 57,226,135,2
3.726231,-1.955190,-0.121275, 57,226,135,2
3.724274,-1.963098,-0.127576, 57,226,135,2
3.722316,-1.971006,-0.133877, 57,226,135,2
3.720358,-1.978915,-0.140179, 57,226,135,2
3.718400,-1.986823,-0.146480, 57,226,135,2
3.716443,-1.994731,-0.152782, 57,226,135,2
3.714485,-2.002639,-0.159083, 57,226,135,2
3.712527,-2.010547,-0.165384, 57,226,135,2
3.710570,-2.018455,-0.171686, 57,226,135,2
3.708612,-2.026363,-0.177987, 57,226,135,2
3.706654,-2.034271,-0.184289, 57,226,135,2
3.704696,-2.042179,-0.190590, 57,226,135,2
3.702739,-2.050087,-0.196891, 57,226,135,2
3.700781,-2.057995,-0.203193, 57,226,135,2
3.698823,-2.065903,-0.209494, 57,226,135,2
3.696866,-2.073811,-0.215796, 57,226,135,2
3.694908,-2.081720,-0.222097, 57,226,135,2
3.692950,-2.089628,-0.228398, 57,226,135,2
3.690992,-2.097536,-0.234700, 57,226,135,2
3.689035,-2.105444,-0.241001, 57,226,135,2
3.687077,-2.113352,-0.247303, 57,226,135,2
3.685119,-2.121260,-0.253604, 57,226,135,2
3.683161,-2.129168,-0.259905, 57,226,135,2
3.681204,-2.137076,-0.266207, 57,226,135,2
3.679246,-2.144984,-0.272508, 57,226,135,2
3.677288,-2.152892,-0.278810, 57,226,135,2
3.675331,-2.160800,-0.285111, 57,226,135,2
3.673373,-2.168708,-0.291412, 57,226,135,2
3.671415,-2.176616,-0.297714, 57,226,135,2
3.669457,-2.184525,-0.304015, 57,226,135,2
3.667500,-2.192433,-0.310317, 57,226,135,2
3.665542,-2.200341,-0.316618, 57,226,135,2
3.663584,-2.208249,-0.322919, 57,226,135,2
3.661627,-2.216157,-0.329221, 57,226,135,2
3.659669,-2.224065,-0.335522, 57,226,135,2
3.657711,-2.231973,-0.341824, 57,226,135,2
3.655753,-2.239881,-0.348125, 57,226,135,2
3.653796,-2.247789,-0.354426, 57,226,135,2
3.651838,-2.255697,-0.360728, 57,226,135,2
3.649880,-2.263605,-0.367029, 57,226,135,2
3.647923,-2.271513,-0.373331, 57,226,135,2
3.645965,-2.279421,-0.379632, 57,226,135,2
3.644007,-2.287329,-0.385934, 57,226,135,2
3.642049,-2.295238,-0.392235, 57,226,135,2
3.640092,-2.303146,-0.398536, 57,226,135,2
3.638134,-2.311054,-0.404838, 57,226,135,2
3.636176,-2.318962,-0.411139, 57,226,135,2
3.634218,-2.326870,-0.417441, 57,226,135,2
3.632261,-2.334778,-0.423742, 57,226,135,2
3.630303,-2.342686,-0.430043, 57,226,135,2
3.628345,-2.350594,-0.436345, 57,226,135,2
3.626388,-2.358502,-0.442646, 57,226,135,2
3.624430,-2.366410,-0.448948, 57,226,135,2
3.622472,-2.374318,-0.455249, 57,226,135,2
3.620514,-2.382226,-0.461550, 57,226,135,2
3.618557,-2.390134,-0.467852, 57,226,135,2
3.616599,-2.398043,-0.474153, 57,226,135,2
3.614641,-2.405951,-0.480455, 57,226,135,2
3.612684,-2.413859,-0.486756, 57,226,135,2
3.610726,-2.421767,-0.493057, 57,226,135,2
3.608768,-2.429675,-0.499359, 57,226,135,2
3.606810,-2.437583,-0.505660, 57,226,135,2
3.604853,-2.445491,-0.511962, 57,226,135,2
3.602895,-2.453399,-0.518263, 57,226,135,2
3.600937,-2.461307,-0.524564, 57,226,135,2
3.598980,-2.469215,-0.530866, 57,226,135,2
3.597022,-2.477123,-0.537167, 57,226,135,2
3.595064,-2.485031,-0.543469, 57,226,135,2
3.593106,-2.492939,-0.549770, 57,226,135,2
3.591149,-2.500848,-0.556071, 57,226,135,2
3.589191,-2.508756,-0.562373, 57,226,135,2
3.587233,-2.516664,-0.568674, 57,226,135,2
3.585275,-2.524572,-0.574976, 57,226,135,2
3.583318,-2.532480,-0.581277, 57,226,135,2
3.581360,-2.540388,-0.587578, 57,226,135,2
3.579402,-2.548296,-0.593880, 57,226,135,2
3.577445,-2.556204,-0.600181, 57,226,135,2
3.575487,-2.564112,-0.606483, 57,226,135,2
3.573529,-2.572020,-0.612784, 57,226,135,2
3.571571,-2.579928,-0.619085, 57,226,135,2
3.569614,-2.587836,-0.625387, 57,226,135,2
3.567656,-2.595744,-0.631688, 57,226,135,2
3.565698,-2.603652,-0.637990, 57,226,135,2
3.563741,-2.611561,-0.644291, 57,226,135,2
3.561783,-2.619469,-0.650592, 57,226,135,2
3.559825,-2.627377,-0.656894, 57,226,135,2
3.557867,-2.635285,-0.663195, 57,226,135,2
3.555910,-2.643193,-0.669497, 57,226,135,2
3.553952,-2.651101,-0.675798, 57,226,135,2
3.551994,-2.659009,-0.682099, 57,226,135,2
3.550037,-2.666917,-0.688401, 57,226,135,2
3.548079,-2.674825,-0.694702, 57,226,135,2
3.546121,-2.682733,-0.701004, 57,226,135,2
3.544163,-2.690641,-0.707305, 57,226,135,2
3.542206,-2.698549,-0.713607, 57,226,135,2
3.540248,-2.706457,-0.719908, 57,226,135,2
3.538290,-2.714366,-0.726209, 57,226,135,2
3.536332,-2.722274,-0.732511, 57,226,135,2
3.534375,-2.730182,-0.738812, 57,226,135,2
3.532417,-2.738090,-0.745114, 57,226,135,2
3.530459,-2.745998,-0.751415, 57,226,135,2
3.528502,-2.753906,-0.757716, 57,226,135,2
3.526544,-2.761814,-0.764018, 57,226,135,2
3.524586,-2.769722,-0.770319, 57,226,135,2
3.522628,-2.777630,-0.776621, 57,226,135,2
3.520671,-2.785538,-0.782922, 57,226,135,2
3.518713,-2.793446,-0.789223, 57,226,135,2
3.516755,-2.801354,-0.795525, 57,226,135,2
3.514798,-2.809262,-0.801826, 57,226,135,2
3.512840,-2.817171,-0.808128, 57,226,135,2
3.510882,-2.825079,-0.814429, 57,226,135,2
3.508924,-2.832987,-0.820730, 57,226,135,2
2.702786,-2.578095,-2.392979, 57,226,135,2
2.704442,-2.569766,-2.387169, 57,226,135,2
2.706099,-2.561437,-2.381360, 57,226,135,2
2.707756,-2.553108,-2.375551, 57,226,135,2
2.709413,-2.544778,-2.369742, 57,226,135,2
2.711069,-2.536449,-2.363933, 57,226,135,2
2.712726,-2.528120,-2.358124, 57,226,135,2
2.714383,-2.519791,-2.352314, 57,226,135,2
2.716039,-2.511461,-2.346505, 57,226,135,2
2.717696,-2.503132,-2.340696, 57,226,135,2
2.719353,-2.494803,-2.334887, 57,226,135,2
2.721009,-2.486474,-2.329078, 57,226,135,2
2.722666,-2.478145,-2.323268, 57,226,135,2
2.724323,-2.469815,-2.317459, 57,226,135,2
2.725979,-2.461486,-2.311650, 57,226,135,2
2.727636,-2.453157,-2.305841, 57,226,135,2
2.729293,-2.444828,-2.300032, 57,226,135,2
2.730949,-2.436498,-2.294222, 57,226,135,2
2.732606,-2.428169,-2.288413, 57,226,135,2
2.734263,-2.419840,-2.282604, 57,226,135,2
2.735919,-2.411511,-2.276795, 57,226,135,2
2.737576,-2.403182,-2.270986, 57,226,135,2
2.739233,-2.394852,-2.265177, 57,226,135,2
2.740889,-2.386523,-2.259367, 57,226,135,2
2.742546,-2.378194,-2.253558, 57,226,135,2
2.744203,-2.369865,-2.247749, 57,226,135,2
2.745859,-2.361535,-2.241940, 57,226,135,2
2.747516,-2.353206,-2.236131, 57,226,135,2
2.749173,-2.344877,-2.230321, 57,226,135,2
2.750829,-2.336548,-2.224512, 57,226,135,2
2.752486,-2.328218,-2.218703, 57,226,135,2
2.754143,-2.319889,-2.212894, 57,226,135,2
2.755799,-2.311560,-2.207085, 57,226,135,2
2.757456,-2.303231,-2.201275, 57,226,135,2
2.759113,-2.294902,-2.195466, 57,226,135,2
2.760769,-2.286572,-2.189657, 57,226,135,2
2.762426,-2.278243,-2.183848, 57,226,135,2
2.764083,-2.269914,-2.178039, 57,226,135,2
2.765739,-2.261585,-2.172230, 57,226,135,2
2.767396,-2.253255,-2.166420, 57,226,135,2
2.769053,-2.244926,-2.160611, 57,226,135,2
2.770709,-2.236597,-2.154802, 57,226,135,2
2.772366,-2.228268,-2.148993, 57,226,135,2
2.774023,-2.219938,-2.143184, 57,226,135,2
2.775679,-2.211609,-2.137374, 57,226,135,2
2.777336,-2.203280,-2.131565, 57,226,135,2
2.778993,-2.194951,-2.125756, 57,226,135,2
2.780650,-2.186622,-2.119947, 57,226,135,2
2.782306,-2.178292,-2.114138, 57,226,135,2
2.783963,-2.169963,-2.108329, 57,226,135,2
2.785620,-2.161634,-2.102519, 57,226,135,2
2.787276,-2.153305,-2.096710, 57,226,135,2
2.788933,-2.144975,-2.090901, 57,226,135,2
2.790590,-2.136646,-2.085092, 57,226,135,2
2.792246,-2.128317,-2.079283, 57,226,135,2
2.793903,-2.119988,-2.073473, 57,226,135,2
2.795560,-2.111658,-2.067664, 57,226,135,2
2.797216,-2.103329,-2.061855, 57,226,135,2
2.798873,-2.095000,-2.056046, 57,226,135,2
2.800530,-2.086671,-2.050237, 57,226,135,2
2.802186,-2.078342,-2.044427, 57,226,135,2
2.803843,-2.070012,-2.038618, 57,226,135,2
2.805500,-2.061683,-2.032809, 57,226,135,2
2.807156,-2.053354,-2.027000, 57,226,135,2
2.808813,-2.045025,-2.021191, 57,226,135,2
2.810470,-2.036695,-2.015382, 57,226,135,2
2.812126,-2.028366,-2.009572, 57,226,135,2
2.813783,-2.020037,-2.003763, 57,226,135,2
2.815440,-2.011708,-1.997954, 57,226,135,2
2.817096,-2.003378,-1.992145, 57,226,135,2
2.818753,-1.995049,-1.986336, 57,226,135,2
2.820410,-1.986720,-1.980526, 57,226,135,2
2.822066,-1.978391,-1.974717, 57,226,135,2
2.823723,-1.970062,-1.968908, 57,226,135,2
2.825380,-1.961732,-1.963099, 57,226,135,2
2.827036,-1.953403,-1.957290, 57,226,135,2
2.828693,-1.945074,-1.951480, 57,226,135,2
2.830350,-1.936745,-1.945671, 57,226,135,2
2.832006,-1.928415,-1.939862, 57,226,135,2
2.833663,-1.920086,-1.934053, 57,226,135,2
2.835320,-1.911757,-1.928244, 57,226,135,2
2.836976,-1.903428,-1.922435, 57,226,135,2
2.838633,-1.895098,-1.916625, 57,226,135,2
2.840290,-1.886769,-1.910816, 57,226,135,2
2.841946,-1.878440,-1.905007, 57,226,135,2
2.843603,-1.870111,-1.899198, 57,226,135,2
2.845260,-1.861782,-1.893389, 57,226,135,2
2.846916,-1.853452,-1.887579, 57,226,135,2
2.848573,-1.845123,-1.881770, 57,226,135,2
2.850230,-1.836794,-1.875961, 57,226,135,2
2.851886,-1.828465,-1.870152, 57,226,135,2
2.853543,-1.820135,-1.864343, 57,226,135,2
2.855200,-1.811806,-1.858534, 57,226,135,2
2.856857,-1.803477,-1.852724, 57,226,135,2
2.858513,-1.795148,-1.846915, 57,226,135,2
2.860170,-1.786819,-1.841106, 57,226,135,2
2.861827,-1.778489,-1.835297, 57,226,135,2
2.863483,-1.770160,-1.829488, 57,226,135,2
2.865140,-1.761831,-1.823678, 57,226,135,2
2.866797,-1.753502,-1.817869, 57,226,135,2
2.868453,-1.745172,-1.812060, 57,226,135,2
2.870110,-1.736843,-1.806251, 57,226,135,2
2.871767,-1.728514,-1.800442, 57,226,135,2
2.873423,-1.720185,-1.794632, 57,226,135,2
2.875080,-1.711855,-1.788823, 57,226,135,2
2.876737,-1.703526,-1.783014, 57,226,135,2
2.878393,-1.695197,-1.777205, 57,226,135,2
2.880050,-1.686868,-1.771396, 57,226,135,2
2.881707,-1.678539,-1.765587, 57,226,135,2
2.883363,-1.670209,-1.759777, 57,226,135,2
2.885020,-1.661880,-1.753968, 57,226,135,2
2.886677,-1.653551,-1.748159, 57,226,135,2
2.888333,-1.645222,-1.742350, 57,226,135,2
2.889990,-1.636892,-1.736541, 57,226,135,2
2.891647,-1.628563,-1.730731, 57,226,135,2
2.893303,-1.620234,-1.724922, 57,226,135,2
2.894960,-1.611905,-1.719113, 57,226,135,2
2.896617,-1.603575,-1.713304, 57,226,135,2
2.898273,-1.595246,-1.707495, 57,226,135,2
2.899930,-1.586917,-1.701686, 57,226,135,2
2.901587,-1.578588,-1.695876, 57,226,135,2
2.903243,-1.570259,-1.690067, 57,226,135,2
2.904900,-1.561929,-1.684258, 57,226,135,2
2.906557,-1.553600,-1.678449, 57,226,135,2
2.908213,-1.545271,-1.672640, 57,226,135,2
2.909870,-1.536942,-1.666830, 57,226,135,2
2.911527,-1.528612,-1.661021, 57,226,135,2
2.913183,-1.520283,-1.655212, 57,226,135,2
2.914840,-1.511954,-1.649403, 57,226,135,2
2.916497,-1.503625,-1.643594, 57,226,135,2
2.918153,-1.495295,-1.637784, 57,226,135,2
2.919810,-1.486966,-1.631975, 57,226,135,2
2.921467,-1.478637,-1.626166, 57,226,135,2
2.923123,-1.470308,-1.620357, 57,226,135,2
2.924780,-1.461979,-1.614548, 57,226,135,2
2.926437,-1.453649,-1.608739, 57,226,135,2
2.928093,-1.445320,-1.602929, 57,226,135,2
2.929750,-1.436991,-1.597120, 57,226,135,2
2.931407,-1.428662,-1.591311, 57,226,135,2
2.933064,-1.420332,-1.585502, 57,226,135,2
2.934720,-1.412003,-1.579693, 57,226,135,2
2.936377,-1.403674,-1.573883, 57,226,135,2
2.938034,-1.395345,-1.568074, 57,226,135,2
2.939690,-1.387015,-1.562265, 57,226,135,2
2.941347,-1.378686,-1.556456, 57,226,135,2
2.943004,-1.370357,-1.550647, 57,226,135,2
2.944660,-1.362028,-1.544837, 57,226,135,2
2.946317,-1.353699,-1.539028, 57,226,135,2
2.947974,-1.345369,-1.533219, 57,226,135,2
2.949630,-1.337040,-1.527410, 57,226,135,2
2.951287,-1.328711,-1.521601, 57,226,135,2
2.952944,-1.320382,-1.515792, 57,226,135,2
2.954600,-1.312052,-1.509982, 57,226,135,2
2.956257,-1.303723,-1.504173, 57,226,135,2
2.957914,-1.295394,-1.498364, 57,226,135,2
2.959570,-1.287065,-1.492555, 57,226,135,2
2.961227,-1.278735,-1.486746, 57,226,135,2
2.962884,-1.270406,-1.480936, 57,226,135,2
2.964540,-1.262077,-1.475127, 57,226,135,2
2.966197,-1.253748,-1.469318, 57,226,135,2
2.967854,-1.245419,-1.463509, 57,226,135,2
2.969510,-1.237089,-1.457700, 57,226,135,2
2.971167,-1.228760,-1.451891, 57,226,135,2
2.972824,-1.220431,-1.446081, 57,226,135,2
3.144037,-2.486898,-1.465200, 57,226,135,2
3.146318,-2.479538,-1.458398, 57,226,135,2
3.148599,-2.472177,-1.451595, 57,226,135,2
3.150881,-2.464817,-1.444792, 57,226,135,2
3.153162,-2.457457,-1.437990, 57,226,135,2
3.155443,-2.450096,-1.431187, 57,226,135,2
3.157724,-2.442736,-1.424384, 57,226,135,2
3.160006,-2.435376,-1.417581, 57,226,135,2
3.162287,-2.428015,-1.410779, 57,226,135,2
3.164568,-2.420655,-1.403976, 57,226,135,2
3.166849,-2.413294,-1.397173, 57,226,135,2
3.169131,-2.405934,-1.390371, 57,226,135,2
3.171412,-2.398574,-1.383568, 57,226,135,2
3.173693,-2.391213,-1.376765, 57,226,135,2
3.175974,-2.383853,-1.369963, 57,226,135,2
3.178256,-2.376493,-1.363160, 57,226,135,2
3.180537,-2.369132,-1.356357, 57,226,135,2
3.182818,-2.361772,-1.349554, 57,226,135,2
3.185099,-2.354411,-1.342752, 57,226,135,2
3.187381,-2.347051,-1.335949, 57,226,135,2
3.189662,-2.339691,-1.329146, 57,226,135,2
3.191943,-2.332330,-1.322344, 57,226,135,2
3.194224,-2.324970,-1.315541, 57,226,135,2
3.196506,-2.317610,-1.308738, 57,226,135,2
3.198787,-2.310249,-1.301935, 57,226,135,2
3.201068,-2.302889,-1.295133, 57,226,135,2
3.203349,-2.295529,-1.288330, 57,226,135,2
3.205631,-2.288168,-1.281527, 57,226,135,2
3.207912,-2.280808,-1.274725, 57,226,135,2
3.210193,-2.273447,-1.267922, 57,226,135,2
3.212474,-2.266087,-1.261119, 57,226,135,2
3.214756,-2.258727,-1.254316, 57,226,135,2
3.217037,-2.251366,-1.247514, 57,226,135,2
3.219318,-2.244006,-1.240711, 57,226,135,2
3.221600,-2.236646,-1.233908, 57,226,135,2
3.223881,-2.229285,-1.227106, 57,226,135,2
3.226162,-2.221925,-1.220303, 57,226,135,2
3.228443,-2.214564,-1.213500, 57,226,135,2
3.230725,-2.207204,-1.206698, 57,226,135,2
3.233006,-2.199844,-1.199895, 57,226,135,2
3.235287,-2.192483,-1.193092, 57,226,135,2
3.237568,-2.185123,-1.186289, 57,226,135,2
3.239850,-2.177763,-1.179487, 57,226,135,2
3.242131,-2.170402,-1.172684, 57,226,135,2
3.244412,-2.163042,-1.165881, 57,226,135,2
3.246693,-2.155682,-1.159079, 57,226,135,2
3.248975,-2.148321,-1.152276, 57,226,135,2
3.251256,-2.140961,-1.145473, 57,226,135,2
3.253537,-2.133600,-1.138670, 57,226,135,2
3.255818,-2.126240,-1.131868, 57,226,135,2
3.258100,-2.118880,-1.125065, 57,226,135,2
3.260381,-2.111519,-1.118262, 57,226,135,2
3.262662,-2.104159,-1.111460, 57,226,135,2
3.264943,-2.096799,-1.104657, 57,226,135,2
3.267225,-2.089438,-1.097854, 57,226,135,2
3.269506,-2.082078,-1.091052, 57,226,135,2
3.271787,-2.074718,-1.084249, 57,226,135,2
3.274068,-2.067357,-1.077446, 57,226,135,2
3.276350,-2.059997,-1.070643, 57,226,135,2
3.278631,-2.052636,-1.063841, 57,226,135,2
3.280912,-2.045276,-1.057038, 57,226,135,2
3.283193,-2.037916,-1.050235, 57,226,135,2
3.285475,-2.030555,-1.043433, 57,226,135,2
3.287756,-2.023195,-1.036630, 57,226,135,2
3.290037,-2.015835,-1.029827, 57,226,135,2
3.292319,-2.008474,-1.023024, 57,226,135,2
3.294600,-2.001114,-1.016222, 57,226,135,2
3.296881,-1.993753,-1.009419, 57,226,135,2
3.299162,-1.986393,-1.002616, 57,226,135,2
3.301444,-1.979033,-0.995814, 57,226,135,2
3.303725,-1.971672,-0.989011, 57,226,135,2
3.306006,-1.964312,-0.982208, 57,226,135,2
3.308287,-1.956952,-0.975405, 57,226,135,2
3.310569,-1.949591,-0.968603, 57,226,135,2
3.312850,-1.942231,-0.961800, 57,226,135,2
3.315131,-1.934871,-0.954997, 57,226,135,2
3.317412,-1.927510,-0.948195, 57,226,135,2
3.319694,-1.920150,-0.941392, 57,226,135,2
3.321975,-1.912789,-0.934589, 57,226,135,2
3.324256,-1.905429,-0.927787, 57,226,135,2
3.326537,-1.898069,-0.920984, 57,226,135,2
3.328819,-1.890708,-0.914181, 57,226,135,2
3.331100,-1.883348,-0.907378, 57,226,135,2
3.333381,-1.875988,-0.900576, 57,226,135,2
3.335662,-1.868627,-0.893773, 57,226,135,2
3.337944,-1.861267,-0.886970, 57,226,135,2
3.340225,-1.853906,-0.880168, 57,226,135,2
3.342506,-1.846546,-0.873365, 57,226,135,2
3.344787,-1.839186,-0.866562, 57,226,135,2
3.347069,-1.831825,-0.859759, 57,226,135,2
3.349350,-1.824465,-0.852957, 57,226,135,2
3.351631,-1.817105,-0.846154, 57,226,135,2
3.353912,-1.809744,-0.839351, 57,226,135,2
3.356194,-1.802384,-0.832549, 57,226,135,2
3.358475,-1.795024,-0.825746, 57,226,135,2
3.360756,-1.787663,-0.818943, 57,226,135,2
3.363038,-1.780303,-0.812141, 57,226,135,2
3.365319,-1.772942,-0.805338, 57,226,135,2
3.367600,-1.765582,-0.798535, 57,226,135,2
3.369881,-1.758222,-0.791732, 57,226,135,2
3.372163,-1.750861,-0.784930, 57,226,135,2
3.374444,-1.743501,-0.778127, 57,226,135,2
3.376725,-1.736141,-0.771324, 57,226,135,2
3.379006,-1.728780,-0.764522, 57,226,135,2
3.381288,-1.721420,-0.757719, 57,226,135,2
3.383569,-1.714059,-0.750916, 57,226,135,2
3.385850,-1.706699,-0.744113, 57,226,135,2
3.388131,-1.699339,-0.737311, 57,226,135,2
3.390413,-1.691978,-0.730508, 57,226,135,2
3.392694,-1.684618,-0.723705, 57,226,135,2
3.394975,-1.677258,-0.716903, 57,226,135,2
3.397256,-1.669897,-0.710100, 57,226,135,2
3.399538,-1.662537,-0.703297, 57,226,135,2
3.401819,-1.655177,-0.696494, 57,226,135,2
3.404100,-1.647816,-0.689692, 57,226,135,2
3.406381,-1.640456,-0.682889, 57,226,135,2
3.408663,-1.633095,-0.676086, 57,226,135,2
3.410944,-1.625735,-0.669284, 57,226,135,2
3.413225,-1.618375,-0.662481, 57,226,135,2
3.415506,-1.611014,-0.655678, 57,226,135,2
3.417788,-1.603654,-0.648876, 57,226,135,2
3.420069,-1.596294,-0.642073, 57,226,135,2
3.422350,-1.588933,-0.635270, 57,226,135,2
3.424631,-1.581573,-0.628467, 57,226,135,2
3.426913,-1.574212,-0.621665, 57,226,135,2
3.429194,-1.566852,-0.614862, 57,226,135,2
3.431475,-1.559492,-0.608059, 57,226,135,2
3.433757,-1.552131,-0.601257, 57,226,135,2
3.436038,-1.544771,-0.594454, 57,226,135,2
3.438319,-1.537411,-0.587651, 57,226,135,2
3.440600,-1.530050,-0.580848, 57,226,135,2
3.442882,-1.522690,-0.574046, 57,226,135,2
3.445163,-1.515330,-0.567243, 57,226,135,2
3.447444,-1.507969,-0.560440, 57,226,135,2
3.449725,-1.500609,-0.553638, 57,226,135,2
3.452007,-1.493248,-0.546835, 57,226,135,2
3.454288,-1.485888,-0.540032, 57,226,135,2
3.456569,-1.478528,-0.533229, 57,226,135,2
3.458850,-1.471167,-0.526427, 57,226,135,2
3.461132,-1.463807,-0.519624, 57,226,135,2
3.463413,-1.456447,-0.512821, 57,226,135,2
3.465694,-1.449086,-0.506019, 57,226,135,2
3.467975,-1.441726,-0.499216, 57,226,135,2
3.470257,-1.434365,-0.492413, 57,226,135,2
3.472538,-1.427005,-0.485611, 57,226,135,2
3.474819,-1.419645,-0.478808, 57,226,135,2
3.477100,-1.412284,-0.472005, 57,226,135,2
3.479382,-1.404924,-0.465202, 57,226,135,2
3.481663,-1.397564,-0.458400, 57,226,135,2
3.483944,-1.390203,-0.451597, 57,226,135,2
3.486225,-1.382843,-0.444794, 57,226,135,2
3.488507,-1.375483,-0.437992, 57,226,135,2
3.490788,-1.368122,-0.431189, 57,226,135,2
3.493069,-1.360762,-0.424386, 57,226,135,2
3.495350,-1.353401,-0.417583, 57,226,135,2
3.497632,-1.346041,-0.410781, 57,226,135,2
3.499913,-1.338681,-0.403978, 57,226,135,2
3.502194,-1.331320,-0.397175, 57,226,135,2
3.504476,-1.323960,-0.390373, 57,226,135,2
3.506757,-1.316600,-0.383570, 57,226,135,2
3.509038,-1.309239,-0.376767, 57,226,135,2
3.511319,-1.301879,-0.369965, 57,226,135,2
3.513601,-1.294518,-0.363162, 57,226,135,2
3.515882,-1.287158,-0.356359, 57,226,135,2
3.518163,-1.279798,-0.349556, 57,226,135,2
3.520444,-1.272437,-0.342754, 57,226,135,2
3.522726,-1.265077,-0.335951, 57,226,135,2
3.525007,-1.257717,-0.329148, 57,226,135,2
3.527288,-1.250356,-0.322346, 57,226,135,2
3.529569,-1.242996,-0.315543, 57,226,135,2
3.531851,-1.235636,-0.308740, 57,226,135,2
3.534132,-1.228275,-0.301937, 57,226,135,2
3.536413,-1.220915,-0.295135, 57,226,135,2
3.538694,-1.213554,-0.288332, 57,226,135,2
3.540976,-1.206194,-0.281529, 57,226,135,2
3.543257,-1.198834,-0.274727, 57,226,135,2
3.545538,-1.191473,-0.267924, 57,226,135,2
3.547819,-1.184113,-0.261121, 57,226,135,2
3.550101,-1.176753,-0.254318, 57,226,135,2
3.552382,-1.169392,-0.247516, 57,226,135,2
3.554663,-1.162032,-0.240713, 57,226,135,2
3.556944,-1.154672,-0.233910, 57,226,135,2
3.559226,-1.147311,-0.227108, 57,226,135,2
3.561507,-1.139951,-0.220305, 57,226,135,2
3.563788,-1.132590,-0.213502, 57,226,135,2
3.566069,-1.125230,-0.206700, 57,226,135,2
3.568351,-1.117870,-0.199897, 57,226,135,2
3.570632,-1.110509,-0.193094, 57,226,135,2
3.572913,-1.103149,-0.186291, 57,226,135,2
3.575195,-1.095789,-0.179489, 57,226,135,2
3.577476,-1.088428,-0.172686, 57,226,135,2
3.579757,-1.081068,-0.165883, 57,226,135,2
3.582038,-1.073707,-0.159081, 57,226,135,2
3.584320,-1.066347,-0.152278, 57,226,135,2
3.586601,-1.058987,-0.145475, 57,226,135,2
3.588882,-1.051626,-0.138672, 57,226,135,2
3.591163,-1.044266,-0.131870, 57,226,135,2
3.593445,-1.036906,-0.125067, 57,226,135,2
3.595726,-1.029545,-0.118264, 57,226,135,2
3.598007,-1.022185,-0.111462, 57,226,135,2
3.600288,-1.014825,-0.104659, 57,226,135,2
3.602570,-1.007464,-0.097856, 57,226,135,2
3.604851,-1.000104,-0.091054, 57,226,135,2
3.607132,-0.992743,-0.084251, 57,226,135,2
3.609413,-0.985383,-0.077448, 57,226,135,2
3.611695,-0.978023,-0.070645, 57,226,135,2
3.613976,-0.970662,-0.063843, 57,226,135,2
3.616257,-0.963302,-0.057040, 57,226,135,2
3.618538,-0.955942,-0.050237, 57,226,135,2
3.620820,-0.948581,-0.043435, 57,226,135,2
3.623101,-0.941221,-0.036632, 57,226,135,2
3.625382,-0.933860,-0.029829, 57,226,135,2
3.627663,-0.926500,-0.023026, 57,226,135,2
3.629945,-0.919140,-0.016224, 57,226,135,2
3.632226,-0.911779,-0.009421, 57,226,135,2
3.634507,-0.904419,-0.002618, 57,226,135,2
3.636788,-0.897059,0.004184, 57,226,135,2
3.639070,-0.889698,0.010987, 57,226,135,2
3.641351,-0.882338,0.017790, 57,226,135,2
3.643632,-0.874978,0.024593, 57,226,135,2
3.645914,-0.867617,0.031395, 57,226,135,2
3.648195,-0.860257,0.038198, 57,226,135,2
3.650476,-0.852896,0.045001, 57,226,135,2
3.652757,-0.845536,0.051803, 57,226,135,2
3.655039,-0.838176,0.058606, 57,226,135,2
3.657320,-0.830815,0.065409, 57,226,135,2
3.659601,-0.823455,0.072211, 57,226,135,2
3.661882,-0.816095,0.079014, 57,226,135,2
3.664164,-0.808734,0.085817, 57,226,135,2
3.666445,-0.801374,0.092620, 57,226,135,2
3.668726,-0.794013,0.099422, 57,226,135,2
3.671007,-0.786653,0.106225, 57,226,135,2
3.673289,-0.779293,0.113028, 57,226,135,2
3.675570,-0.771932,0.119830, 57,226,135,2
3.677851,-0.764572,0.126633, 57,226,135,2
3.680132,-0.757212,0.133436, 57,226,135,2
3.682414,-0.749851,0.140239, 57,226,135,2
3.684695,-0.742491,0.147041, 57,226,135,2
3.686976,-0.735131,0.153844, 57,226,135,2
3.689257,-0.727770,0.160647, 57,226,135,2
3.691539,-0.720410,0.167449, 57,226,135,2
3.693820,-0.713049,0.174252, 57,226,135,2
3.696101,-0.705689,0.181055, 57,226,135,2
3.698382,-0.698329,0.187857, 57,226,135,2
3.700664,-0.690968,0.194660, 57,226,135,2
3.702945,-0.683608,0.201463, 57,226,135,2
3.705226,-0.676248,0.208266, 57,226,135,2
3.707507,-0.668887,0.215068, 57,226,135,2
3.709789,-0.661527,0.221871, 57,226,135,2
3.712070,-0.654166,0.228674, 57,226,135,2
3.714351,-0.646806,0.235476, 57,226,135,2
3.716633,-0.639446,0.242279, 57,226,135,2
3.718914,-0.632085,0.249082, 57,226,135,2
3.721195,-0.624725,0.255885, 57,226,135,2
3.723476,-0.617365,0.262687, 57,226,135,2
3.725758,-0.610004,0.269490, 57,226,135,2
3.728039,-0.602644,0.276293, 57,226,135,2
3.730320,-0.595284,0.283095, 57,226,135,2
3.732601,-0.587923,0.289898, 57,226,135,2
3.734883,-0.580563,0.296701, 57,226,135,2
3.737164,-0.573202,0.303504, 57,226,135,2
3.739445,-0.565842,0.310306, 57,226,135,2
3.741726,-0.558482,0.317109, 57,226,135,2
3.744008,-0.551121,0.323912, 57,226,135,2
3.746289,-0.543761,0.330714, 57,226,135,2
3.748570,-0.536401,0.337517, 57,226,135,2
3.750851,-0.529040,0.344320, 57,226,135,2
3.753133,-0.521680,0.351122, 57,226,135,2
3.755414,-0.514319,0.357925, 57,226,135,2
3.757695,-0.506959,0.364728, 57,226,135,2
3.759976,-0.499599,0.371531, 57,226,135,2
3.762258,-0.492238,0.378333, 57,226,135,2
3.764539,-0.484878,0.385136, 57,226,135,2
3.766820,-0.477518,0.391939, 57,226,135,2
3.769101,-0.470157,0.398741, 57,226,135,2
3.771383,-0.462797,0.405544, 57,226,135,2
3.773664,-0.455437,0.412347, 57,226,135,2
3.775945,-0.448076,0.419150, 57,226,135,2
3.778227,-0.440716,0.425952, 57,226,135,2
3.780508,-0.433355,0.432755, 57,226,135,2
3.782789,-0.425995,0.439558, 57,226,135,2
3.785070,-0.418635,0.446360, 57,226,135,2
3.787352,-0.411274,0.453163, 57,226,135,2
3.789633,-0.403914,0.459966, 57,226,135,2
3.791914,-0.396554,0.466768, 57,226,135,2
3.794195,-0.389193,0.473571, 57,226,135,2
3.796477,-0.381833,0.480374, 57,226,135,2
3.798758,-0.374472,0.487177, 57,226,135,2
3.801039,-0.367112,0.493979, 57,226,135,2
3.803320,-0.359752,0.500782, 57,226,135,2
3.805602,-0.352391,0.507585, 57,226,135,2
3.807883,-0.345031,0.514387, 57,226,135,2
3.810164,-0.337671,0.521190, 57,226,135,2
3.812445,-0.330310,0.527993, 57,226,135,2
3.814727,-0.322950,0.534796, 57,226,135,2
3.817008,-0.315590,0.541598, 57,226,135,2
-3.115490,-2.016323,-2.397588, 114,27,13,3
-3.105251,-2.015787,-2.396864, 114,27,13,3
-3.095012,-2.015250,-2.396139, 114,27,13,3
-3.084773,-2.014714,-2.395415, 114,27,13,3
-3.074534,-2.014178,-2.394691, 114,27,13,3
-3.064294,-2.013641,-2.393967, 114,27,13,3
-3.054055,-2.013105,-2.393243, 114,27,13,3
-3.043816,-2.012569,-2.392518, 114,27,13,3
-3.033577,-2.012033,-2.391794, 114,27,13,3
